ply
format ascii 1.0
comment PCL generated
element vertex 100
property float x
property float y
property float z
element camera 1
property float view_px
property float view_py
property float view_pz
property float x_axisx
property float x_axisy
property float x_axisz
property float y_axisx
property float y_axisy
property float y_axisz
property float z_axisx
property float z_axisy
property float z_axisz
property float focal
property float scalex
property float scaley
property float centerx
property float centery
property int viewportx
property int viewporty
property float k1
property float k2
end_header
20.147282 -0.29143846 -0.81389093
20.150772 -0.29496688 -0.72621942
15.493372 -0.74013633 12.02894
15.440843 -0.74211568 12.096225
15.415467 -0.74530548 12.184964
10.064217 -0.68943828 12.556565
9.9883289 -0.68911177 12.573563
9.9285431 -0.68979216 12.610556
9.8735399 -0.6907748 12.653573
9.8244572 -0.69214022 12.704257
3.5327995 -0.63589352 13.378784
3.4745169 -0.63572502 13.393909
3.4164135 -0.63558728 13.409746
3.3616016 -0.63602221 13.43891
3.3054192 -0.63623744 13.462996
-0.18952945 -0.1653478 2.7691712
-0.20126553 -0.16507296 2.7661514
-0.21316586 -0.16487297 2.7650709
-0.2250614 -0.164671 2.7639387
-0.23471121 -0.16362792 2.7408848
-0.24384627 -0.16247198 2.714818
-0.25430626 -0.16184974 2.7026277
-0.26592863 -0.16164425 2.7013164
-0.27945217 -0.1620422 2.7158289
-0.29372579 -0.16262451 2.7352319
-0.30549005 -0.1624103 2.7337484
-0.31367904 -0.16117899 2.7054698
-0.31766927 -0.15886202 2.6484635
-0.32412577 -0.1573384 2.6122499
-0.33419165 -0.15682721 2.6027253
-0.34403181 -0.15627822 2.5921736
-0.3520956 -0.1553198 2.5707235
-0.36314088 -0.15510504 2.5689869
-0.3743408 -0.15492548 2.568188
-0.38537475 -0.15470701 2.5663543
-0.39349389 -0.15386029 2.5477345
-0.4018091 -0.15308823 2.5310602
-0.41250107 -0.15283047 2.5281236
-0.42335963 -0.15260772 2.526124
-0.43270412 -0.15209121 2.5162251
-0.44351047 -0.15186565 2.5141373
-0.45509449 -0.15178363 2.5159214
-0.46630129 -0.15162668 2.5156939
-0.4771049 -0.15139534 2.5134594
-0.48601291 -0.15083784 2.5023839
-0.49675825 -0.15060386 2.5000637
-0.50771135 -0.15040402 2.498672
-0.51888484 -0.15023804 2.4982057
-0.52961153 -0.14999861 2.4957423
-0.54032737 -0.14975747 2.4932323
-0.55455786 -0.15004683 2.5052452
-0.5684256 -0.15026079 2.5152402
-0.5760603 -0.14955311 2.4999602
-0.59051019 -0.14983147 2.51177
-0.60179919 -0.14964905 2.5109284
-0.61616719 -0.14988437 2.5216269
-0.63454694 -0.15063851 2.5467205
-0.64548415 -0.15037626 2.5437522
-0.65667695 -0.15014698 2.5416989
-0.66704583 -0.14981203 2.5367115
-0.67073131 -0.14864825 2.508637
-0.67756194 -0.14790067 2.4920857
-0.68826008 -0.14763415 2.4889302
-0.7001034 -0.14750263 2.4895544
-0.71519929 -0.14774327 2.5006289
-0.72653049 -0.14753765 2.4992175
-0.73725915 -0.14726225 2.4958484
-0.74919868 -0.14712012 2.496238
-0.76674682 -0.14758089 2.5136693
-0.77911168 -0.1474653 2.5148678
-0.79947382 -0.14818235 2.5396857
-8.4508867 -0.5356136 14.836078
-8.5133858 -0.53317612 14.79548
-8.5797329 -0.5309515 14.761518
-16.717936 0.020618726 3.579339
-16.131912 0.020722862 3.3819931
-16.046337 0.023198115 3.2912414
-16.160408 0.026705774 3.2408357
-16.744352 0.044869963 2.977567
-16.759937 0.047963761 2.9048564
-16.772249 0.051037051 2.8315737
-16.784239 0.054108214 2.7582383
-16.772202 0.057012234 2.6811268
-16.760798 0.059912417 2.6043224
-16.760916 0.062888868 2.5294266
-16.771589 0.065940589 2.4561424
-16.784912 0.069012687 2.3832264
-16.814766 0.072215557 2.3125107
-16.830439 0.075311728 2.2397692
-16.924175 0.079049848 2.176805
-19.598568 0.10442173 2.4266903
-19.608759 0.10795852 2.3410342
-19.618572 0.1114921 2.2553339
-19.628016 0.11502243 2.1695917
-19.640066 0.11857649 2.0841188
-19.801001 0.12350854 2.0134246
-20.023407 0.12907313 1.9472318
-20.035479 0.13269387 1.8600875
-20.043192 0.13627346 1.7725302
-20.05052 0.13984929 1.68494
0 0 0 1 0 0 0 1 0 0 0 1 0 0 0 0 0 100 1 0 0
