ply
format ascii 1.0
comment PCL generated
element vertex 99
property float x
property float y
property float z
element camera 1
property float view_px
property float view_py
property float view_pz
property float x_axisx
property float x_axisy
property float x_axisz
property float y_axisx
property float y_axisy
property float y_axisz
property float z_axisx
property float z_axisy
property float z_axisz
property float focal
property float scalex
property float scaley
property float centerx
property float centery
property int viewportx
property int viewporty
property float k1
property float k2
end_header
15.541536 -0.7422564 12.066311
15.488843 -0.74424189 12.133806
10.058596 -0.68908519 12.549544
9.9870863 -0.68903315 12.571996
9.9205132 -0.68928057 12.600346
9.8655548 -0.6902625 12.643328
9.8152952 -0.69154823 12.692397
3.5408938 -0.63722891 13.409714
3.4824762 -0.63706005 13.424873
3.4239933 -0.63688016 13.439778
3.3582377 -0.63543856 13.425332
3.2997541 -0.63523716 13.439696
3.2504804 -0.63669133 13.492678
-0.12582304 -0.16378729 2.7087154
-0.13626628 -0.1629068 2.6900182
-0.1471922 -0.16237465 2.6802514
-0.1587939 -0.16222759 2.6804039
-0.16967939 -0.16173187 2.6715405
-0.17998445 -0.16100475 2.6566589
-0.191407 -0.16081479 2.6556721
-0.20040293 -0.15962741 2.6287675
-0.21170343 -0.15943554 2.6276917
-0.22452679 -0.15981387 2.6414778
-0.23588251 -0.1596171 2.6402969
-0.24701191 -0.15934242 2.63708
-0.2551322 -0.15808043 2.6080065
-0.26336166 -0.15693441 2.5818887
-0.27038065 -0.15548836 2.5478151
-0.27953699 -0.15476157 2.5325596
-0.28896257 -0.15414797 2.5202439
-0.29978818 -0.15394706 2.5187829
-0.30976239 -0.15351972 2.5113385
-0.31938782 -0.15301688 2.5018771
-0.32714385 -0.15206629 2.4805222
-0.33779559 -0.15186107 2.4788949
-0.34749165 -0.15143146 2.4713006
-0.35826525 -0.15126027 2.4705708
-0.36803976 -0.15086555 2.4638813
-0.37913129 -0.15076478 2.4650297
-0.38918895 -0.15044115 2.4602242
-0.39975134 -0.15022637 2.4583266
-0.41030526 -0.15000987 2.4563828
-0.42085066 -0.14979167 2.4543931
-0.42907795 -0.1491348 2.4405897
-0.43955413 -0.14891425 2.438518
-0.45082507 -0.14883694 2.4403169
-0.46191558 -0.14872105 2.4410846
-0.47239357 -0.14849481 2.43887
-0.48671001 -0.14891402 2.4541814
-0.49724483 -0.14868273 2.4518588
-0.50776941 -0.14844973 2.4494898
-0.5185101 -0.14825071 2.4480484
-0.53432631 -0.1488325 2.4679511
-0.5453909 -0.14866312 2.4673631
-0.5657934 -0.14987159 2.5045667
-0.58507061 -0.15085864 2.5358224
-0.59596074 -0.15060559 2.5330701
-0.60633481 -0.15028062 2.5283358
-0.60438222 -0.14827493 2.4771914
-0.61397451 -0.14788237 2.4704962
-0.62060976 -0.1471063 2.4531622
-0.63060099 -0.14678252 2.4483306
-0.64110857 -0.14652665 2.4453804
-0.65687025 -0.14692424 2.4606276
-0.66743124 -0.14666313 2.4575627
-0.67769319 -0.14636607 2.4534943
-0.68822277 -0.14610176 2.4503384
-0.70138395 -0.14614238 2.455734
-0.71967393 -0.14675666 2.477277
-0.7354455 -0.14705914 2.4901328
-8.4792528 -0.53720206 14.885494
-8.5178995 -0.53342575 14.803264
-8.5822592 -0.53108954 14.765833
-16.699348 0.020529317 3.5754135
-16.127995 0.020703321 3.3811834
-16.033594 0.023132199 3.2886662
-16.156481 0.026684765 3.2400601
-16.780798 0.045097649 2.9839449
-16.770781 0.048033427 2.9067051
-16.7831 0.05110871 2.8333755
-16.795099 0.05418187 2.7599924
-16.789982 0.057135969 2.6839197
-16.766729 0.059954751 2.6052277
-16.768831 0.062946759 2.5305991
-16.779509 0.065999918 2.4572806
-16.776989 0.068951942 2.382123
-16.814766 0.072215557 2.3125107
-16.82449 0.075264029 2.2389936
-16.911276 0.078944139 2.1751807
-19.593605 0.10438018 2.4260874
-19.603792 0.10791608 2.3404527
-19.604662 0.11137076 2.2537665
-19.613104 0.11488975 2.1679771
-19.622164 0.11841406 2.0822594
-19.757219 0.12310366 2.0090704
-20.026392 0.12910126 1.9475155
-20.045439 0.13278945 1.8609903
-20.053154 0.13637081 1.7733897
-20.06547 0.13999799 1.6861639
0 0 0 1 0 0 0 1 0 0 0 1 0 0 0 0 0 99 1 0 0
