ply
format ascii 1.0
comment PCL generated
element vertex 98
property float x
property float y
property float z
element camera 1
property float view_px
property float view_py
property float view_pz
property float x_axisx
property float x_axisy
property float x_axisz
property float y_axisx
property float y_axisy
property float y_axisz
property float z_axisx
property float z_axisy
property float z_axisz
property float focal
property float scalex
property float scaley
property float centerx
property float centery
property int viewportx
property int viewporty
property float k1
property float k2
end_header
20.161268 -0.29159945 -0.81448489
20.164761 -0.29513031 -0.72675246
15.521796 -0.74138755 12.050994
15.455793 -0.74277788 12.10793
15.40292 -0.74474615 12.175052
10.03861 -0.68783003 12.524585
9.9790115 -0.68852246 12.561821
9.9223671 -0.68939865 12.602702
9.8673973 -0.69038075 12.645693
9.8421726 -0.69328499 12.727191
3.5472178 -0.63827223 13.43388
3.4869537 -0.63781101 13.442292
3.4191034 -0.63604605 13.420403
3.3599198 -0.63573039 13.432121
3.3021147 -0.63565397 13.449405
-0.23042405 -0.16677281 2.8186359
-0.24102558 -0.16599265 2.8025169
-0.25308424 -0.16578369 2.8012631
-0.26436368 -0.16530676 2.793004
-0.27557653 -0.16482893 2.7846997
-0.28517324 -0.16385829 2.7634521
-0.29669029 -0.16353068 2.7590308
-0.30817488 -0.16320157 2.7545612
-0.32015553 -0.16302136 2.754005
-0.33200145 -0.1628015 2.7524061
-0.34384027 -0.16257969 2.7507558
-0.35291412 -0.16164616 2.7302682
-0.3583791 -0.15985651 2.6870279
-0.36209023 -0.1577372 2.6349051
-0.37294137 -0.15740567 2.6301641
-0.38359645 -0.15703577 2.624392
-0.39437568 -0.15670164 2.6195617
-0.4030689 -0.15592395 2.6028712
-0.41390342 -0.15562499 2.5989444
-0.42309591 -0.15499444 2.5861242
-0.43218511 -0.154364 2.5732727
-0.44135904 -0.15377024 2.5613723
-0.45063052 -0.15321286 2.5504205
-0.46158606 -0.15298222 2.5482543
-0.47092402 -0.15245998 2.5382092
-0.48182592 -0.15222654 2.5359545
-0.49669898 -0.15267622 2.5522177
-0.50766176 -0.15243752 2.5498509
-0.51817793 -0.15212531 2.545485
-0.52777719 -0.15166868 2.5371785
-0.53867394 -0.15142547 2.5346758
-0.54979044 -0.15121607 2.5330982
-0.56066912 -0.15096928 2.5304997
-0.57440776 -0.15114535 2.5394976
-0.58750582 -0.15121149 2.5455148
-0.59918153 -0.15106301 2.5456564
-0.6103664 -0.15084204 2.5438097
-0.62231588 -0.15072408 2.5448108
-0.63689065 -0.1509525 2.5554042
-0.65024728 -0.15100242 2.5610991
-0.66877413 -0.15170781 2.5850143
-0.68206227 -0.15171409 2.5895877
-0.69318604 -0.15144114 2.586412
-0.70373303 -0.1510977 2.58127
-0.70682359 -0.14986184 2.5511832
-0.71546119 -0.14931349 2.5402482
-0.72519338 -0.14890137 2.5331061
-0.73606998 -0.14862423 2.5297427
-0.7487455 -0.14854848 2.5320477
-0.75992376 -0.14830106 2.5295331
-0.77544296 -0.14852262 2.5402677
-0.78635031 -0.14823636 2.5366852
-0.79724187 -0.14794843 2.5330553
-0.80973244 -0.14782536 2.534107
-0.83565992 -0.14906046 2.5738173
-8.4593468 -0.53608733 14.850817
-8.5239162 -0.53375852 14.813641
-8.5918579 -0.53161377 14.782221
-16.714024 0.020599922 3.5785127
-16.121138 0.020669091 3.3797669
-16.033594 0.023132199 3.2886662
-16.149614 0.026648015 3.2387035
-16.769794 0.048027094 2.9065371
-16.775208 0.051056582 2.8320651
-16.791151 0.054155089 2.7593546
-16.787018 0.057115335 2.683454
-16.798363 0.060180496 2.6100552
-16.80444 0.063207179 2.5358746
-16.782476 0.066022143 2.4577072
-16.792833 0.069073431 2.3843296
-16.798908 0.07209117 2.3103731
-16.822504 0.0752481 2.2387347
-16.922192 0.079033591 2.1765552
-19.599564 0.10443006 2.4268112
-19.609753 0.10796703 2.3411505
-19.626526 0.11156147 2.2562299
-19.622051 0.11496937 2.168946
-19.654987 0.11871187 2.0856683
-19.779108 0.12330609 2.0112476
-20.04232 0.12925135 1.9490294
-20.055399 0.13288504 1.8618932
-20.063116 0.13646816 1.774249
-20.073441 0.14007728 1.6868166
0 0 0 1 0 0 0 1 0 0 0 1 0 0 0 0 0 98 1 0 0
