ply
format ascii 1.0
comment PCL generated
element vertex 100
property float x
property float y
property float z
element camera 1
property float view_px
property float view_py
property float view_pz
property float x_axisx
property float x_axisy
property float x_axisz
property float y_axisx
property float y_axisy
property float y_axisz
property float z_axisx
property float z_axisy
property float z_axisz
property float focal
property float scalex
property float scaley
property float centerx
property float centery
property int viewportx
property int viewporty
property float k1
property float k2
end_header
15.503637 -0.74058819 12.036904
15.446351 -0.74235964 12.100538
15.393509 -0.74432665 12.167618
10.064841 -0.68947744 12.557344
9.9932976 -0.68942606 12.579823
9.9192781 -0.68920189 12.598776
9.8643265 -0.6901837 12.641751
9.8311777 -0.69257444 12.712956
3.5403881 -0.63714546 13.407781
3.4802377 -0.6366846 13.416164
3.4169028 -0.63567072 13.411684
3.3570364 -0.63523012 13.420484
3.298574 -0.63502878 13.434841
-0.077470474 -0.16301794 2.6732795
-0.088619262 -0.16257186 2.6657536
-0.099488549 -0.16196907 2.6541891
-0.11020093 -0.16132696 2.641583
-0.12130761 -0.16099481 2.6369116
-0.13244341 -0.16069999 2.6331894
-0.1425499 -0.15986264 2.6154664
-0.15379302 -0.15968154 2.6146426
-0.16407095 -0.15903649 2.6018178
-0.17601442 -0.15919836 2.6098619
-0.18723267 -0.1590118 2.6088927
-0.19947132 -0.15924452 2.6188185
-0.21072839 -0.15905339 2.6177466
-0.22157329 -0.1587078 2.6126499
-0.22951147 -0.15733317 2.5806799
-0.23540722 -0.15535353 2.5327995
-0.24456543 -0.15459245 2.5166817
-0.25311148 -0.15368056 2.4965637
-0.26074612 -0.15254328 2.4704683
-0.27135471 -0.15235014 2.4691308
-0.28261828 -0.15234323 2.4726994
-0.29323637 -0.15214616 2.4712663
-0.30314398 -0.15176016 2.4648402
-0.31343722 -0.15148528 2.4613402
-0.32400537 -0.15128353 2.4597726
-0.333644 -0.15085693 2.452235
-0.3425914 -0.15028115 2.4407125
-0.34819776 -0.14896488 2.4094369
-0.3582055 -0.14868626 2.4057477
-0.36853036 -0.14848 2.4039855
-0.38252828 -0.1490441 2.4228387
-0.39490283 -0.14923608 2.4317839
-0.405341 -0.14902197 2.4298615
-0.41313642 -0.14829513 2.4141531
-0.42349735 -0.14807887 2.4121513
-0.43404621 -0.14789726 2.4110842
-0.44620234 -0.14800364 2.4178014
-0.46109456 -0.1485765 2.4371724
-0.47155547 -0.14835061 2.4349613
-0.48371691 -0.14841068 2.4405146
-0.49593651 -0.14846756 2.4460068
-0.50643557 -0.14823513 2.4436438
-0.5216819 -0.14875011 2.4616752
-0.53594202 -0.14908154 2.4747574
-0.5550279 -0.15011778 2.5071878
-0.5657934 -0.14987159 2.5045667
-0.57557327 -0.14948253 2.4980216
-0.58282989 -0.14874069 2.4817564
-0.58542073 -0.14736836 2.4480672
-0.59387827 -0.14684041 2.4375861
-0.60303724 -0.14641708 2.4299717
-0.61346507 -0.14616704 2.4271417
-0.62172973 -0.1456379 2.4165659
-0.6389243 -0.14624998 2.4376891
-0.64993984 -0.14606224 2.4366229
-0.66095883 -0.14587246 2.4355063
-0.67398047 -0.14592053 2.4410434
-0.68474549 -0.14569175 2.4388607
-0.70402944 -0.14644893 2.4643309
-8.4603424 -0.53614312 14.852551
-8.5219097 -0.5336476 14.810182
-8.5862999 -0.53131026 14.772733
-16.715004 0.020604633 3.5787196
-16.102533 0.020576233 3.3759224
-16.018892 0.023056187 3.2856953
-16.130976 0.026548276 3.2350214
-16.751066 0.047906753 2.9033437
-16.763371 0.050978418 2.8300998
-16.76647 0.053987712 2.7553678
-16.787018 0.057115335 2.683454
-16.798363 0.060180496 2.6100552
-16.809385 0.063243367 2.5366073
-16.81019 0.066229723 2.4616897
-16.785902 0.069020279 2.3833642
-16.795937 0.072067864 2.3099723
-16.823498 0.075256065 2.2388642
-16.929134 0.079090498 2.1774299
-19.57971 0.10426385 2.4243987
-19.625643 0.10810284 2.3430111
-19.635468 0.11163946 2.2572374
-19.636963 0.11510205 2.1705604
-19.646034 0.11863063 2.0847385
-19.787069 0.12337971 2.0120392
-20.044312 0.12927011 1.9492186
-20.059381 0.13292328 1.8622543
-20.072083 0.13655578 1.7750224
-20.086397 0.14020614 1.6878773
0 0 0 1 0 0 0 1 0 0 0 1 0 0 0 0 0 100 1 0 0
