ply
format ascii 1.0
comment PCL generated
element vertex 97
property float x
property float y
property float z
element camera 1
property float view_px
property float view_py
property float view_pz
property float x_axisx
property float x_axisy
property float x_axisz
property float y_axisx
property float y_axisy
property float y_axisz
property float z_axisx
property float z_axisy
property float z_axisz
property float focal
property float scalex
property float scaley
property float centerx
property float centery
property int viewportx
property int viewporty
property float k1
property float k2
end_header
15.51627 -0.74114424 12.046706
15.458155 -0.74288249 12.109778
15.405272 -0.74485099 12.176909
10.051726 -0.68865377 12.540965
9.9790115 -0.68852246 12.561821
9.9242201 -0.68951672 12.605059
9.8704691 -0.69057781 12.649633
9.8397293 -0.6931271 12.724029
3.5441825 -0.63777149 13.42228
3.4832225 -0.63718522 13.427776
3.4239933 -0.63688016 13.439778
3.3560755 -0.63506335 13.416605
3.2976301 -0.63486207 13.430958
3.2425992 -0.63527477 13.459634
-0.15054896 -0.16419105 2.7270963
-0.16129436 -0.16350061 2.7132843
-0.17288424 -0.1632721 2.7113822
-0.18446133 -0.16304176 2.7094302
-0.19353855 -0.16173548 2.6795595
-0.20357037 -0.16092923 2.6625948
-0.21453105 -0.16054377 2.6565323
-0.2259526 -0.16034785 2.6553948
-0.23917419 -0.1607971 2.6710989
-0.2524274 -0.16120391 2.6857443
-0.2639761 -0.16099973 2.6844411
-0.27051303 -0.15920453 2.6414175
-0.27840939 -0.15794259 2.6122706
-0.28759137 -0.15713532 2.5949976
-0.29649648 -0.15629113 2.5767033
-0.30497506 -0.15537278 2.5564001
-0.31398696 -0.15464287 2.5410182
-0.32446757 -0.15432435 2.5364821
-0.33102959 -0.15303542 2.506212
-0.34179345 -0.15282802 2.5045674
-0.35112733 -0.15228492 2.4939954
-0.36021382 -0.15170453 2.4824033
-0.37220684 -0.15178898 2.4885142
-0.38152507 -0.1512807 2.4788139
-0.39234397 -0.15110293 2.4779332
-0.40280408 -0.15084989 2.4750385
-0.41287938 -0.15052213 2.4701345
-0.42160326 -0.14993767 2.4583189
-0.43408126 -0.1500815 2.4660864
-0.44171804 -0.14931379 2.449296
-0.45383993 -0.1493804 2.4550006
-0.46273667 -0.14886563 2.4449968
-0.47490793 -0.14892736 2.4505956
-0.48756519 -0.14905784 2.4580863
-0.49986148 -0.14911304 2.4635618
-0.50977021 -0.14877163 2.4582589
-0.52100223 -0.14864311 2.4587553
-0.53271073 -0.14858347 2.4611447
-0.54656607 -0.14884052 2.4722197
-0.5617255 -0.14927007 2.4880714
-0.5760603 -0.14955311 2.4999602
-0.59323543 -0.15021853 2.5224199
-0.60457098 -0.15003502 2.5215664
-0.61565483 -0.1498144 2.519695
-0.6264742 -0.14955698 2.5168095
-0.63410544 -0.14888044 2.5023122
-0.64269805 -0.14834334 2.4916456
-0.65202951 -0.14790995 2.4838355
-0.65853357 -0.14713113 2.4663887
-0.66911972 -0.14686938 2.4633167
-0.67997795 -0.14664026 2.4611561
-0.69141018 -0.14647759 2.4608598
-0.70520526 -0.14658517 2.4681518
-0.71699095 -0.14645107 2.4686918
-0.73242277 -0.14672065 2.4806066
-0.7446022 -0.146614 2.4819686
-8.455864 -0.53589231 14.844748
-8.5093756 -0.53295428 14.788562
-8.5736713 -0.5306204 14.751168
-16.708155 0.020571675 3.5772734
-16.121138 0.020669091 3.3797669
-16.032614 0.023127135 3.2884684
-16.149614 0.026648015 3.2387035
-16.791979 0.051167343 2.8348494
-16.803982 0.054242104 2.7614276
-16.77813 0.05705348 2.6820579
-16.772661 0.059997089 2.606133
-16.783669 0.063055284 2.5327973
-16.775549 0.065970257 2.4567115
-16.785902 0.069020279 2.3833642
-16.802872 0.072122268 2.3109074
-16.823498 0.075256065 2.2388642
-16.93112 0.079106756 2.1776795
-19.591619 0.10436357 2.4258459
-19.601807 0.10789911 2.34022
-19.611618 0.11143142 2.2545502
-19.619068 0.11494282 2.1686232
-19.630119 0.11848625 2.0830858
-19.772146 0.12324169 2.0105548
-20.029379 0.12912941 1.9477994
-20.046436 0.13279903 1.8610806
-20.054152 0.13638055 1.7734758
-20.066465 0.14000788 1.6862454
0 0 0 1 0 0 0 1 0 0 0 1 0 0 0 0 0 97 1 0 0
