ply
format ascii 1.0
comment PCL generated
element vertex 99
property float x
property float y
property float z
element camera 1
property float view_px
property float view_py
property float view_pz
property float x_axisx
property float x_axisy
property float x_axisz
property float y_axisx
property float y_axisy
property float y_axisz
property float z_axisx
property float z_axisy
property float z_axisz
property float focal
property float scalex
property float scaley
property float centerx
property float centery
property int viewportx
property int viewporty
property float k1
property float k2
end_header
20.15727 -0.29155344 -0.8143152
20.160765 -0.29508364 -0.72660017
15.506796 -0.74072719 12.039354
15.446351 -0.74235964 12.100538
15.393509 -0.74432665 12.167618
10.057971 -0.68904603 12.548765
10.000131 -0.6898582 12.588432
9.937191 -0.69034302 12.621552
9.8821402 -0.69132656 12.664606
9.8415613 -0.69324547 12.726399
3.5322933 -0.63581008 13.37685
3.4740198 -0.63564163 13.391973
3.4156804 -0.63546222 13.406841
3.3546336 -0.63481313 13.410785
3.2962136 -0.63461196 13.425133
3.2481623 -0.6362747 13.482959
-0.21679914 -0.16636623 2.8038726
-0.22798647 -0.16581745 2.7937737
-0.23909052 -0.16526797 2.7836297
-0.24979255 -0.16460365 2.7704606
-0.2586166 -0.16333131 2.7413604
-0.27040803 -0.16312285 2.7400301
-0.28171676 -0.16276106 2.7346797
-0.2931082 -0.16243573 2.7302737
-0.30485082 -0.16222192 2.7287931
-0.31870165 -0.16260777 2.7431095
-0.33050001 -0.1623888 2.7415171
-0.33736265 -0.16085756 2.7052467
-0.34144843 -0.15869503 2.6521604
-0.34956148 -0.15765736 2.628732
-0.35763106 -0.15665868 2.6062703
-0.36772501 -0.15618114 2.5976021
-0.37888747 -0.15596212 2.5957971
-0.38904181 -0.15551965 2.5880313
-0.3984524 -0.15492897 2.5762875
-0.40899557 -0.15459557 2.5713971
-0.41788831 -0.1539308 2.5576158
-0.42887557 -0.1537054 2.5555921
-0.44135904 -0.15377024 2.5613723
-0.45236248 -0.15354057 2.5592463
-0.46276632 -0.15320016 2.5541332
-0.47132599 -0.15253244 2.5401669
-0.47895232 -0.1517206 2.5222619
-0.48873684 -0.15130645 2.5150867
-0.49953756 -0.15107127 2.5127544
-0.50901973 -0.15061918 2.5045235
-0.52399796 -0.15106066 2.5206151
-0.5348224 -0.15081905 2.5181291
-0.54725158 -0.15082474 2.5224025
-0.55808353 -0.15057901 2.5198152
-0.56890416 -0.15033156 2.5171807
-0.57727784 -0.14972952 2.5048063
-0.59348327 -0.15025373 2.5233884
-0.60734266 -0.15042098 2.5322042
-0.62052256 -0.15047917 2.538049
-0.63298452 -0.15042917 2.5409312
-0.6536873 -0.15145466 2.5736277
-0.6660859 -0.15136096 2.5753887
-0.67714787 -0.15109159 2.5722826
-0.67987955 -0.1497861 2.5403233
-0.68656707 -0.14900072 2.5227726
-0.69739908 -0.14873086 2.519578
-0.70995557 -0.14866431 2.5220747
-0.72078419 -0.14839044 2.5187781
-0.73070401 -0.14801303 2.5125723
-0.7411887 -0.14770228 2.5082326
-0.75195658 -0.1474238 2.5047998
-0.76705736 -0.14761452 2.5146191
-0.78414726 -0.1480017 2.5300453
-0.79596639 -0.14781478 2.5292666
-0.80940938 -0.14779204 2.5331609
-8.4553671 -0.53586441 14.843882
-8.5138874 -0.53320384 14.796345
-8.5782175 -0.53086877 14.758931
-16.721851 0.020637559 3.5801661
-16.136808 0.020747295 3.3830047
-16.05418 0.023238661 3.2928262
-16.165312 0.026732014 3.2418046
-16.769794 0.048027094 2.9065371
-16.782114 0.051102202 2.8332114
-16.771404 0.054021172 2.756165
-16.783066 0.057087835 2.6828337
-16.782547 0.060067628 2.6076417
-16.780701 0.063033566 2.5323575
-16.780497 0.066007316 2.4574227
-16.787884 0.06903547 2.3836401
-16.797918 0.072083421 2.3102396
-16.825481 0.075271972 2.2391229
-16.927151 0.079074241 2.1771801
-19.597578 0.10441343 2.4265699
-19.619684 0.10805191 2.3423135
-19.629507 0.11158747 2.2565658
-19.638952 0.11511974 2.1707759
-19.671892 0.11886525 2.0874243
-19.774136 0.1232601 2.0107529
-20.030375 0.12913878 1.9478941
-20.038467 0.13272256 1.8603584
-20.046181 0.13630266 1.772788
-20.062481 0.13996826 1.6859192
0 0 0 1 0 0 0 1 0 0 0 1 0 0 0 0 0 99 1 0 0
