ply
format ascii 1.0
comment PCL generated
element vertex 95
property float x
property float y
property float z
element camera 1
property float view_px
property float view_py
property float view_pz
property float x_axisx
property float x_axisy
property float x_axisz
property float y_axisx
property float y_axisy
property float y_axisz
property float z_axisx
property float z_axisy
property float z_axisz
property float focal
property float scalex
property float scaley
property float centerx
property float centery
property int viewportx
property int viewporty
property float k1
property float k2
end_header
20.171257 -0.29171446 -0.81490922
20.174753 -0.29524708 -0.72713321
15.519428 -0.74128324 12.049157
15.46681 -0.74326593 12.116556
10.050476 -0.68857527 12.539405
9.9777689 -0.6884439 12.560256
9.9229841 -0.68943799 12.603488
9.8680124 -0.69042015 12.646481
9.8385077 -0.69304812 12.722446
3.5406413 -0.63718718 13.408748
3.4807353 -0.63676798 13.418099
3.4217927 -0.63650483 13.431059
3.3608809 -0.63589716 13.436001
3.3023505 -0.63569564 13.450375
-0.11463624 -0.16427973 2.717396
-0.12381618 -0.16254619 2.6768024
-0.13472372 -0.16201633 2.6670873
-0.14483531 -0.16109931 2.6473603
-0.15614192 -0.16087741 2.6455305
-0.16671494 -0.16030715 2.6346872
-0.17728144 -0.15977487 2.6247971
-0.1885649 -0.15958722 2.6238222
-0.20114818 -0.15993372 2.6367266
-0.21375099 -0.16023804 2.6485763
-0.22534154 -0.160119 2.6494303
-0.23673196 -0.1599216 2.6482456
-0.24413835 -0.1583547 2.611258
-0.25065279 -0.15660185 2.569293
-0.25954765 -0.15572368 2.5501397
-0.26914543 -0.15511079 2.537899
-0.27736354 -0.15412103 2.5157113
-0.28764084 -0.15377198 2.5103388
-0.29678527 -0.15312165 2.4970045
-0.30610111 -0.15254635 2.485616
-0.31633997 -0.15223241 2.4811144
-0.3266955 -0.15195447 2.4775579
-0.33518162 -0.15122883 2.4621091
-0.34575287 -0.15102328 2.4604468
-0.35501766 -0.15051982 2.45085
-0.36553949 -0.15031148 2.4491014
-0.37485671 -0.1498435 2.4404149
-0.38603389 -0.14977939 2.4425151
-0.39562112 -0.1493828 2.4357162
-0.40699574 -0.14935127 2.4387019
-0.4167113 -0.14898865 2.432801
-0.42715365 -0.14877069 2.4307835
-0.43502975 -0.14807887 2.4159832
-0.44539839 -0.14785871 2.4138858
-0.4578104 -0.14799829 2.4215238
-0.46987921 -0.14806224 2.4271443
-0.48478583 -0.14859045 2.4453955
-0.49615458 -0.14850342 2.4469821
-0.50932556 -0.14870009 2.4563103
-0.52190846 -0.14878578 2.4626486
-0.5334031 -0.14869021 2.4640617
-0.54891658 -0.1491953 2.4819329
-0.56459701 -0.14969467 2.4997153
-0.58166128 -0.15036465 2.5222528
-0.59249222 -0.15011299 2.5195158
-0.59701169 -0.14898239 2.4925535
-0.60694414 -0.14862481 2.4868515
-0.6085059 -0.14714973 2.4502337
-0.61849278 -0.146828 2.4454525
-0.62818152 -0.14647034 2.4396675
-0.6394704 -0.14631914 2.4396117
-0.65298921 -0.14644152 2.447185
-0.66911972 -0.14686938 2.4633167
-0.68112034 -0.14677735 2.464987
-0.69314885 -0.14668261 2.4665987
-0.70314759 -0.14634673 2.4614654
-0.7157985 -0.14631525 2.4648762
-8.4593468 -0.53608733 14.850817
-8.5239162 -0.53375852 14.813641
-8.5923624 -0.53164136 14.783082
-16.735548 0.020703442 3.5830586
-16.124077 0.02068376 3.380374
-16.050257 0.023218377 3.2920337
-16.152557 0.026663762 3.239285
-16.822086 0.060349792 2.6136758
-16.763885 0.062910594 2.5298662
-16.774557 0.065962836 2.4565692
-16.798777 0.069118991 2.3851571
-16.808819 0.072168902 2.3117092
-16.81953 0.075224258 2.2383471
-17.182125 0.081163935 2.2092927
-19.584671 0.10430539 2.4250016
-19.624649 0.10809434 2.342895
-19.634474 0.1116308 2.2571256
-19.64094 0.11513744 2.1709909
-19.650013 0.11866674 2.0851517
-19.808962 0.12358216 2.0142164
-20.026392 0.12910126 1.9475155
-20.045439 0.13278945 1.8609903
-20.054152 0.13638055 1.7734758
-20.084404 0.14018631 1.6877141
0 0 0 1 0 0 0 1 0 0 0 1 0 0 0 0 0 95 1 0 0
