ply
format ascii 1.0
comment PCL generated
element vertex 98
property float x
property float y
property float z
element camera 1
property float view_px
property float view_py
property float view_pz
property float x_axisx
property float x_axisy
property float x_axisz
property float y_axisx
property float y_axisy
property float y_axisz
property float z_axisx
property float z_axisy
property float z_axisz
property float focal
property float scalex
property float scaley
property float centerx
property float centery
property int viewportx
property int viewporty
property float k1
property float k2
end_header
15.508374 -0.74079663 12.040579
15.455793 -0.74277788 12.10793
15.432719 -0.74607456 12.198593
10.05235 -0.68869293 12.541744
9.9951601 -0.6895439 12.582171
9.937191 -0.69034302 12.621552
9.8821402 -0.69132656 12.664606
9.8385077 -0.69304812 12.722446
3.5338111 -0.63606048 13.38265
3.4755118 -0.63589191 13.397779
3.4164135 -0.63558728 13.409746
3.3589587 -0.63556367 13.428243
3.3004622 -0.63536221 13.442609
3.2472351 -0.63610804 13.479072
-0.17745113 -0.16546692 2.7681565
-0.18936053 -0.16527094 2.76718
-0.20028853 -0.16465098 2.755203
-0.20971893 -0.16345629 2.7282591
-0.2196012 -0.16253094 2.7082465
-0.23084112 -0.16217858 2.70311
-0.24246588 -0.16197714 2.701901
-0.25441679 -0.16188771 2.7036207
-0.26719207 -0.16206129 2.7122355
-0.27885622 -0.16185302 2.7108679
-0.28841445 -0.16100094 2.6925921
-0.2953901 -0.15943371 2.6554532
-0.30138689 -0.15768228 2.6133521
-0.31057146 -0.15691105 2.5969872
-0.31891555 -0.15595318 2.5756447
-0.32809594 -0.15525825 2.5611994
-0.33700761 -0.15452637 2.5457346
-0.34686765 -0.15405531 2.5371518
-0.35555339 -0.1533239 2.5216241
-0.36557233 -0.15292628 2.5149424
-0.37570718 -0.15256467 2.5092061
-0.38648361 -0.15234938 2.5073667
-0.39725184 -0.15213233 2.5054805
-0.40962791 -0.15224363 2.5123949
-0.41876304 -0.15169299 2.5015671
-0.42912921 -0.15139769 2.4975774
-0.43985423 -0.15117383 2.4955051
-0.45037341 -0.15091193 2.4924066
-0.46208045 -0.15086584 2.4951365
-0.47012603 -0.15016662 2.4802063
-0.48014614 -0.14982854 2.4750242
-0.49034449 -0.14952525 2.4707773
-0.50095171 -0.14929235 2.4684384
-0.51488334 -0.14959425 2.4806681
-0.5271194 -0.14960623 2.4850357
-0.53871167 -0.14950845 2.4864256
-0.54938674 -0.14926627 2.483876
-0.56124687 -0.14919931 2.486131
-0.5784955 -0.14990595 2.5096526
-0.59174901 -0.15000741 2.5166111
-0.60860258 -0.15059642 2.53704
-0.62334067 -0.15086403 2.5486748
-0.63428652 -0.15060361 2.5457551
-0.64098561 -0.14978489 2.527369
-0.65156925 -0.14948796 2.5234101
-0.65639794 -0.14846329 2.4992177
-0.66601849 -0.14806208 2.4923136
-0.67390364 -0.14745377 2.4796188
-0.68397623 -0.14712006 2.4745643
-0.69372845 -0.14675094 2.4685118
-0.70432341 -0.14648299 2.465286
-0.72116446 -0.14692645 2.4820468
-0.73635232 -0.14716068 2.4929905
-0.7495051 -0.14715387 2.4971893
-0.76270932 -0.14714366 2.5013199
-0.78823864 -0.14843751 2.542377
-8.4653187 -0.53642178 14.86122
-8.5289297 -0.5340358 14.822288
-8.5933733 -0.53169656 14.784808
-16.721851 0.020637559 3.5801661
-16.129953 0.020713087 3.3815882
-16.052219 0.023228519 3.2924299
-16.158445 0.026695265 3.240448
-16.746138 0.047875088 2.9025033
-16.758438 0.050945841 2.8292811
-16.797073 0.054195251 2.7603114
-16.808752 0.0572666 2.686868
-16.774639 0.060011189 2.6064348
-16.776745 0.063004635 2.5317714
-16.776539 0.06597767 2.4568539
-16.773029 0.068921581 2.3815713
-16.783052 0.071966819 2.3082356
-16.822504 0.0752481 2.2387347
-16.940048 0.079179935 2.1788044
-19.611473 0.10452978 2.4282587
-19.626638 0.10811134 2.3431275
-19.636463 0.11164814 2.2573495
-19.645912 0.11518168 2.1715291
-19.65996 0.11875699 2.0861847
-19.796026 0.12346254 2.0129299
-20.023407 0.12907313 1.9472318
-20.048428 0.13281813 1.8612611
-20.057138 0.13640974 1.7737334
-20.070452 0.14004754 1.686572
0 0 0 1 0 0 0 1 0 0 0 1 0 0 0 0 0 98 1 0 0
